0.47999763 -2.3581088E-6 0.5999975
0.47999763 0.029997641 -0.48000237
0.47999763 0.029997641 0.5999975
0.47999763 0.05999764 -0.48000237
0.47999763 0.05999764 0.5999975
0.47999763 0.08999764 -0.48000237
0.47999763 0.08999764 0.56999755
0.47999763 0.08999764 0.5999975
0.47999763 0.11999764 -0.48000237
0.47999763 0.11999764 0.56999755
0.47999763 0.11999764 0.5999975
0.47999763 0.14999764 -0.45000237
0.47999763 0.14999764 0.56999755
0.47999763 0.17999764 -0.45000237
0.47999763 0.17999764 0.5399976
0.47999763 0.17999764 0.56999755
0.47999763 0.20999764 -0.45000237
0.47999763 0.20999764 0.5399976
0.47999763 0.23999764 -0.42000237
0.47999763 0.23999764 0.5099976
0.47999763 0.23999764 0.5399976
0.47999763 0.26999763 -0.42000237
0.47999763 0.26999763 0.5099976
0.47999763 0.29999763 -0.42000237
0.47999763 0.29999763 -0.39000237
0.47999763 0.29999763 0.47999763
0.47999763 0.29999763 0.5099976
0.47999763 0.32999763 -0.39000237
0.47999763 0.32999763 0.44999763
0.47999763 0.32999763 0.47999763
0.47999763 0.35999763 -0.39000237
0.47999763 0.35999763 -0.36000237
0.47999763 0.35999763 0.41999763
0.47999763 0.35999763 0.44999763
0.47999763 0.38999763 -0.36000237
0.47999763 0.38999763 0.41999763
0.47999763 0.41999763 -0.33000237
0.47999763 0.41999763 0.35999763
0.47999763 0.41999763 0.38999763
0.47999763 0.44999763 -0.30000237
0.47999763 0.44999763 0.32999763
0.47999763 0.44999763 0.35999763
0.47999763 0.47999763 -0.27000237
0.47999763 0.47999763 0.29999763
0.47999763 0.47999763 0.32999763
0.47999763 0.5099976 -0.24000236
0.47999763 0.5099976 -0.21000236
0.47999763 0.5099976 0.23999764
0.47999763 0.5099976 0.26999763
0.47999763 0.5099976 0.29999763
0.47999763 0.5399976 -0.21000236
0.47999763 0.5399976 -0.18000236
0.47999763 0.5399976 0.17999764
0.47999763 0.5399976 0.20999764
0.47999763 0.5399976 0.23999764
0.47999763 0.56999755 -0.18000236
0.47999763 0.56999755 -0.15000236
0.47999763 0.56999755 -0.12000236
0.47999763 0.56999755 -0.09000236
0.47999763 0.56999755 0.08999764
0.47999763 0.56999755 0.11999764
0.47999763 0.56999755 0.14999764
0.47999763 0.56999755 0.17999764
0.47999763 0.5999975 -0.09000236
0.47999763 0.5999975 -0.060002357
0.47999763 0.5999975 -0.030002357
0.47999763 0.5999975 -2.3581088E-6
0.47999763 0.5999975 0.029997641
0.47999763 0.5999975 0.05999764
0.47999763 0.5999975 0.08999764
0.47999763 0.5999975 0.11999764
0.5099976 -0.45000237 -0.15000236
0.5099976 -0.45000237 -0.12000236
0.5099976 -0.45000237 -0.09000236
0.5099976 -0.45000237 -0.060002357
0.5099976 -0.45000237 -0.030002357
0.5099976 -0.45000237 -2.3581088E-6
0.5099976 -0.45000237 0.029997641
0.5099976 -0.45000237 0.05999764
0.5099976 -0.45000237 0.08999764
0.5099976 -0.45000237 0.11999764
0.5099976 -0.45000237 0.14999764
0.5099976 -0.45000237 0.17999764
0.5099976 -0.42000237 -0.21000236
0.5099976 -0.42000237 -0.18000236
0.5099976 -0.42000237 0.17999764
0.5099976 -0.42000237 0.20999764
0.5099976 -0.42000237 0.23999764
0.5099976 -0.39000237 -0.27000237
0.5099976 -0.39000237 -0.24000236
0.5099976 -0.39000237 0.26999763
0.5099976 -0.39000237 0.29999763
0.5099976 -0.36000237 -0.30000237
0.5099976 -0.36000237 -0.27000237
0.5099976 -0.36000237 0.32999763
0.5099976 -0.36000237 0.35999763
0.5099976 -0.33000237 -0.33000237
0.5099976 -0.33000237 0.35999763
0.5099976 -0.33000237 0.38999763
0.5099976 -0.30000237 -0.36000237
0.5099976 -0.30000237 0.41999763
0.5099976 -0.27000237 -0.39000237
0.5099976 -0.27000237 -0.36000237
0.5099976 -0.27000237 0.44999763
0.5099976 -0.24000236 -0.39000237
0.5099976 -0.24000236 0.47999763
0.5099976 -0.21000236 -0.42000237
0.5099976 -0.21000236 0.47999763
0.5099976 -0.21000236 0.5099976
0.5099976 -0.18000236 -0.42000237
0.5099976 -0.18000236 0.5099976
0.5099976 -0.18000236 0.5399976
0.5099976 -0.15000236 -0.45000237
0.5099976 -0.15000236 0.5399976
0.5099976 -0.12000236 -0.45000237
0.5099976 -0.12000236 0.5399976
0.5099976 -0.12000236 0.56999755
0.5099976 -0.09000236 -0.45000237
0.5099976 -0.09000236 0.5399976
0.5099976 -0.09000236 0.56999755
0.5099976 -0.060002357 -0.45000237
0.5099976 -0.060002357 0.56999755
0.5099976 -0.030002357 -0.45000237
0.5099976 -0.030002357 0.56999755
0.5099976 -2.3581088E-6 -0.45000237
0.5099976 -2.3581088E-6 0.56999755
0.5099976 0.029997641 -0.45000237
0.5099976 0.029997641 0.56999755
0.5099976 0.05999764 -0.45000237
0.5099976 0.05999764 0.56999755
0.5099976 0.08999764 -0.45000237
0.5099976 0.08999764 0.5399976
0.5099976 0.08999764 0.56999755
0.5099976 0.11999764 -0.45000237
0.5099976 0.11999764 0.5399976
0.5099976 0.11999764 0.56999755
0.5099976 0.14999764 -0.45000237
0.5099976 0.14999764 0.5399976
0.5099976 0.17999764 -0.45000237
0.5099976 0.17999764 -0.42000237
0.5099976 0.17999764 0.5099976
0.5099976 0.17999764 0.5399976
0.5099976 0.20999764 -0.42000237
0.5099976 0.20999764 0.5099976
0.5099976 0.23999764 -0.42000237
0.5099976 0.23999764 0.47999763
0.5099976 0.23999764 0.5099976
0.5099976 0.26999763 -0.39000237
0.5099976 0.26999763 0.47999763
0.5099976 0.29999763 -0.39000237
0.5099976 0.29999763 0.44999763
0.5099976 0.29999763 0.47999763
0.5099976 0.32999763 -0.36000237
0.5099976 0.32999763 0.41999763
0.5099976 0.32999763 0.44999763
0.5099976 0.35999763 -0.36000237
0.5099976 0.35999763 -0.33000237
0.5099976 0.35999763 0.38999763
0.5099976 0.35999763 0.41999763
0.5099976 0.38999763 -0.33000237
0.5099976 0.38999763 0.35999763
0.5099976 0.38999763 0.38999763
0.5099976 0.41999763 -0.30000237
0.5099976 0.41999763 0.32999763
0.5099976 0.41999763 0.35999763
0.5099976 0.44999763 -0.27000237
0.5099976 0.44999763 0.29999763
0.5099976 0.44999763 0.32999763
0.5099976 0.47999763 -0.24000236
0.5099976 0.47999763 -0.21000236
0.5099976 0.47999763 0.23999764
0.5099976 0.47999763 0.26999763
0.5099976 0.47999763 0.29999763
0.5099976 0.5099976 -0.21000236
0.5099976 0.5099976 -0.18000236
0.5099976 0.5099976 0.17999764
0.5099976 0.5099976 0.20999764
0.5099976 0.5099976 0.23999764
0.5099976 0.5399976 -0.18000236
0.5099976 0.5399976 -0.15000236
0.5099976 0.5399976 -0.12000236
0.5099976 0.5399976 -0.09000236
0.5099976 0.5399976 0.08999764
0.5099976 0.5399976 0.11999764
0.5099976 0.5399976 0.14999764
0.5099976 0.5399976 0.17999764
0.5099976 0.56999755 -0.12000236
0.5099976 0.56999755 -0.09000236
0.5099976 0.56999755 -0.060002357
0.5099976 0.56999755 -0.030002357
0.5099976 0.56999755 -2.3581088E-6
0.5099976 0.56999755 0.029997641
0.5099976 0.56999755 0.05999764
0.5099976 0.56999755 0.08999764
0.5099976 0.56999755 0.11999764
0.5399976 -0.45000237 -0.060002357
0.5399976 -0.45000237 -0.030002357
0.5399976 -0.45000237 -2.3581088E-6
0.5399976 -0.45000237 0.029997641
0.5399976 -0.45000237 0.05999764
0.5399976 -0.45000237 0.08999764
0.5399976 -0.42000237 -0.18000236
0.5399976 -0.42000237 -0.15000236
0.5399976 -0.42000237 -0.12000236
0.5399976 -0.42000237 -0.09000236
0.5399976 -0.42000237 0.11999764
0.5399976 -0.42000237 0.14999764
0.5399976 -0.42000237 0.17999764
0.5399976 -0.42000237 0.20999764
0.5399976 -0.39000237 -0.24000236
0.5399976 -0.39000237 -0.21000236
0.5399976 -0.39000237 -0.18000236
0.5399976 -0.39000237 0.20999764
0.5399976 -0.39000237 0.23999764
0.5399976 -0.39000237 0.26999763
0.5399976 -0.36000237 -0.27000237
0.5399976 -0.36000237 -0.24000236
0.5399976 -0.36000237 0.29999763
0.5399976 -0.36000237 0.32999763
0.5399976 -0.33000237 -0.30000237
0.5399976 -0.33000237 0.32999763
0.5399976 -0.33000237 0.35999763
0.5399976 -0.30000237 -0.33000237
0.5399976 -0.30000237 0.38999763
0.5399976 -0.27000237 -0.36000237
0.5399976 -0.27000237 0.41999763
0.5399976 -0.24000236 -0.39000237
0.5399976 -0.24000236 -0.36000237
0.5399976 -0.24000236 0.44999763
0.5399976 -0.21000236 -0.39000237
0.5399976 -0.21000236 0.44999763
0.5399976 -0.21000236 0.47999763
0.5399976 -0.18000236 -0.42000237
0.5399976 -0.18000236 -0.39000237
0.5399976 -0.18000236 0.47999763
0.5399976 -0.18000236 0.5099976
0.5399976 -0.15000236 -0.42000237
0.5399976 -0.15000236 0.5099976
0.5399976 -0.12000236 -0.42000237
0.5399976 -0.12000236 0.5099976
0.5399976 -0.12000236 0.5399976
0.5399976 -0.09000236 -0.42000237
0.5399976 -0.09000236 0.5099976
0.5399976 -0.09000236 0.5399976
0.5399976 -0.060002357 -0.45000237
0.5399976 -0.060002357 0.5399976
0.5399976 -0.030002357 -0.45000237
0.5399976 -0.030002357 0.5399976
0.5399976 -2.3581088E-6 -0.45000237
0.5399976 -2.3581088E-6 0.5399976
0.5399976 0.029997641 -0.45000237
0.5399976 0.029997641 0.5399976
0.5399976 0.05999764 -0.45000237
0.5399976 0.05999764 0.5399976
0.5399976 0.08999764 -0.45000237
0.5399976 0.08999764 0.5099976
0.5399976 0.08999764 0.5399976
0.5399976 0.11999764 -0.42000237
0.5399976 0.11999764 0.5099976
0.5399976 0.11999764 0.5399976
0.5399976 0.14999764 -0.42000237
0.5399976 0.14999764 0.5099976
0.5399976 0.17999764 -0.42000237
0.5399976 0.17999764 0.47999763
0.5399976 0.17999764 0.5099976
0.5399976 0.20999764 -0.42000237
0.5399976 0.20999764 -0.39000237
0.5399976 0.20999764 0.47999763
0.5399976 0.23999764 -0.39000237
0.5399976 0.23999764 0.44999763
0.5399976 0.23999764 0.47999763
0.5399976 0.26999763 -0.39000237
0.5399976 0.26999763 0.44999763
0.5399976 0.29999763 -0.36000237
0.5399976 0.29999763 0.41999763
0.5399976 0.29999763 0.44999763
0.5399976 0.32999763 -0.36000237
0.5399976 0.32999763 -0.33000237
0.5399976 0.32999763 0.38999763
0.5399976 0.32999763 0.41999763
0.5399976 0.35999763 -0.33000237
0.5399976 0.35999763 0.35999763
0.5399976 0.35999763 0.38999763
0.5399976 0.38999763 -0.30000237
0.5399976 0.38999763 0.32999763
0.5399976 0.38999763 0.35999763
0.5399976 0.41999763 -0.27000237
0.5399976 0.41999763 0.29999763
0.5399976 0.41999763 0.32999763
0.5399976 0.44999763 -0.24000236
0.5399976 0.44999763 -0.21000236
0.5399976 0.44999763 0.23999764
0.5399976 0.44999763 0.26999763
0.5399976 0.44999763 0.29999763
0.5399976 0.47999763 -0.21000236
0.5399976 0.47999763 -0.18000236
0.5399976 0.47999763 0.17999764
0.5399976 0.47999763 0.20999764
0.5399976 0.47999763 0.23999764
0.5399976 0.5099976 -0.18000236
0.5399976 0.5099976 -0.15000236
0.5399976 0.5099976 -0.12000236
0.5399976 0.5099976 -0.09000236
0.5399976 0.5099976 0.08999764
0.5399976 0.5099976 0.11999764
0.5399976 0.5099976 0.14999764
0.5399976 0.5099976 0.17999764
0.5399976 0.5399976 -0.12000236
0.5399976 0.5399976 -0.09000236
0.5399976 0.5399976 -0.060002357
0.5399976 0.5399976 -0.030002357
0.5399976 0.5399976 -2.3581088E-6
0.5399976 0.5399976 0.029997641
0.5399976 0.5399976 0.05999764
0.5399976 0.5399976 0.08999764
0.5399976 0.5399976 0.11999764
0.56999755 -0.42000237 -0.12000236
0.56999755 -0.42000237 -0.09000236
0.56999755 -0.42000237 -0.060002357
0.56999755 -0.42000237 -0.030002357
0.56999755 -0.42000237 -2.3581088E-6
0.56999755 -0.42000237 0.029997641
0.56999755 -0.42000237 0.05999764
0.56999755 -0.42000237 0.08999764
0.56999755 -0.42000237 0.11999764
0.56999755 -0.42000237 0.14999764
0.56999755 -0.39000237 -0.18000236
0.56999755 -0.39000237 -0.15000236
0.56999755 -0.39000237 -0.12000236
0.56999755 -0.39000237 0.14999764
0.56999755 -0.39000237 0.17999764
0.56999755 -0.39000237 0.20999764
0.56999755 -0.36000237 -0.24000236
0.56999755 -0.36000237 -0.21000236
0.56999755 -0.36000237 0.23999764
0.56999755 -0.36000237 0.26999763
0.56999755 -0.33000237 -0.27000237
0.56999755 -0.33000237 -0.24000236
0.56999755 -0.33000237 0.29999763
0.56999755 -0.33000237 0.32999763
0.56999755 -0.30000237 -0.30000237
0.56999755 -0.30000237 0.32999763
0.56999755 -0.30000237 0.35999763
0.56999755 -0.27000237 -0.33000237
0.56999755 -0.27000237 0.35999763
0.56999755 -0.27000237 0.38999763
0.56999755 -0.24000236 -0.36000237
0.56999755 -0.24000236 -0.33000237
0.56999755 -0.24000236 0.38999763
0.56999755 -0.24000236 0.41999763
0.56999755 -0.21000236 -0.36000237
0.56999755 -0.21000236 0.41999763
0.56999755 -0.21000236 0.44999763
0.56999755 -0.18000236 -0.39000237
0.56999755 -0.18000236 0.44999763
0.56999755 -0.18000236 0.47999763
0.56999755 -0.15000236 -0.39000237
0.56999755 -0.15000236 0.47999763
0.56999755 -0.12000236 -0.42000237
0.56999755 -0.12000236 -0.39000237
0.56999755 -0.12000236 0.47999763
0.56999755 -0.12000236 0.5099976
0.56999755 -0.09000236 -0.42000237
0.56999755 -0.09000236 0.47999763
0.56999755 -0.09000236 0.5099976
0.56999755 -0.060002357 -0.42000237
0.56999755 -0.060002357 0.5099976
0.56999755 -0.030002357 -0.42000237
0.56999755 -0.030002357 0.5099976
0.56999755 -2.3581088E-6 -0.42000237
0.56999755 -2.3581088E-6 0.5099976
0.56999755 0.029997641 -0.42000237
0.56999755 0.029997641 0.5099976
0.56999755 0.05999764 -0.42000237
0.56999755 0.05999764 0.5099976
0.56999755 0.08999764 -0.42000237
0.56999755 0.08999764 0.47999763
0.56999755 0.08999764 0.5099976
0.56999755 0.11999764 -0.42000237
0.56999755 0.11999764 0.47999763
0.56999755 0.11999764 0.5099976
0.56999755 0.14999764 -0.42000237
0.56999755 0.14999764 -0.39000237
0.56999755 0.14999764 0.47999763
0.56999755 0.17999764 -0.39000237
0.56999755 0.17999764 0.44999763
0.56999755 0.17999764 0.47999763
0.56999755 0.20999764 -0.39000237
0.56999755 0.20999764 0.44999763
0.56999755 0.23999764 -0.36000237
0.56999755 0.23999764 0.41999763
0.56999755 0.23999764 0.44999763
0.56999755 0.26999763 -0.36000237
0.56999755 0.26999763 0.41999763
0.56999755 0.29999763 -0.33000237
0.56999755 0.29999763 0.38999763
0.56999755 0.32999763 -0.33000237
0.56999755 0.32999763 -0.30000237
0.56999755 0.32999763 0.35999763
0.56999755 0.32999763 0.38999763
0.56999755 0.35999763 -0.30000237
0.56999755 0.35999763 -0.27000237
0.56999755 0.35999763 0.32999763
0.56999755 0.35999763 0.35999763
0.56999755 0.38999763 -0.27000237
0.56999755 0.38999763 -0.24000236
0.56999755 0.38999763 0.29999763
0.56999755 0.38999763 0.32999763
0.56999755 0.41999763 -0.24000236
0.56999755 0.41999763 -0.21000236
0.56999755 0.41999763 0.23999764
0.56999755 0.41999763 0.26999763
0.56999755 0.44999763 -0.21000236
0.56999755 0.44999763 -0.18000236
0.56999755 0.44999763 0.17999764
0.56999755 0.44999763 0.20999764
0.56999755 0.44999763 0.23999764
0.56999755 0.47999763 -0.18000236
0.56999755 0.47999763 -0.15000236
0.56999755 0.47999763 -0.12000236
0.56999755 0.47999763 -0.09000236
0.56999755 0.47999763 0.08999764
0.56999755 0.47999763 0.11999764
0.56999755 0.47999763 0.14999764
0.56999755 0.47999763 0.17999764
0.56999755 0.5099976 -0.12000236
0.56999755 0.5099976 -0.09000236
0.56999755 0.5099976 -0.060002357
0.56999755 0.5099976 -0.030002357
0.56999755 0.5099976 -2.3581088E-6
0.56999755 0.5099976 0.029997641
0.56999755 0.5099976 0.05999764
0.56999755 0.5099976 0.08999764
0.56999755 0.5099976 0.11999764
0.5999975 -0.42000237 -2.3581088E-6
0.5999975 -0.42000237 0.029997641
0.5999975 -0.39000237 -0.15000236
0.5999975 -0.39000237 -0.12000236
0.5999975 -0.39000237 -0.09000236
0.5999975 -0.39000237 -0.060002357
0.5999975 -0.39000237 -0.030002357
0.5999975 -0.39000237 -2.3581088E-6
0.5999975 -0.39000237 0.029997641
0.5999975 -0.39000237 0.05999764
0.5999975 -0.39000237 0.08999764
0.5999975 -0.39000237 0.11999764
0.5999975 -0.39000237 0.14999764
0.5999975 -0.39000237 0.17999764
0.5999975 -0.36000237 -0.21000236
0.5999975 -0.36000237 -0.18000236
0.5999975 -0.36000237 -0.15000236
0.5999975 -0.36000237 0.17999764
0.5999975 -0.36000237 0.20999764
0.5999975 -0.36000237 0.23999764
0.5999975 -0.33000237 -0.24000236
0.5999975 -0.33000237 -0.21000236
0.5999975 -0.33000237 0.23999764
0.5999975 -0.33000237 0.26999763
0.5999975 -0.33000237 0.29999763
0.5999975 -0.30000237 -0.27000237
0.5999975 -0.30000237 0.29999763
0.5999975 -0.30000237 0.32999763
0.5999975 -0.27000237 -0.30000237
0.5999975 -0.27000237 0.32999763
0.5999975 -0.27000237 0.35999763
0.5999975 -0.24000236 -0.33000237
0.5999975 -0.24000236 0.35999763
0.5999975 -0.24000236 0.38999763
0.5999975 -0.21000236 -0.36000237
0.5999975 -0.21000236 -0.33000237
0.5999975 -0.21000236 0.38999763
0.5999975 -0.21000236 0.41999763
0.5999975 -0.18000236 -0.36000237
0.5999975 -0.18000236 0.41999763
0.5999975 -0.15000236 -0.39000237
0.5999975 -0.15000236 -0.36000237
0.5999975 -0.15000236 0.41999763
0.5999975 -0.15000236 0.44999763
0.5999975 -0.12000236 -0.39000237
0.5999975 -0.12000236 0.44999763
0.5999975 -0.09000236 -0.39000237
0.5999975 -0.09000236 0.44999763
0.5999975 -0.09000236 0.47999763
0.5999975 -0.060002357 -0.39000237
0.5999975 -0.060002357 0.47999763
0.5999975 -0.030002357 -0.39000237
0.5999975 -0.030002357 0.47999763
0.5999975 -2.3581088E-6 -0.42000237
0.5999975 -2.3581088E-6 -0.39000237
0.5999975 -2.3581088E-6 0.47999763
0.5999975 0.029997641 -0.42000237
0.5999975 0.029997641 -0.39000237
0.5999975 0.029997641 0.47999763
0.5999975 0.05999764 -0.39000237
0.5999975 0.05999764 0.47999763
0.5999975 0.08999764 -0.39000237
0.5999975 0.08999764 0.44999763
0.5999975 0.08999764 0.47999763
0.5999975 0.11999764 -0.39000237
0.5999975 0.11999764 0.44999763
0.5999975 0.11999764 0.47999763
0.5999975 0.14999764 -0.39000237
0.5999975 0.14999764 0.44999763
0.5999975 0.17999764 -0.39000237
0.5999975 0.17999764 -0.36000237
0.5999975 0.17999764 0.41999763
0.5999975 0.17999764 0.44999763
0.5999975 0.20999764 -0.36000237
0.5999975 0.20999764 0.41999763
0.5999975 0.23999764 -0.36000237
0.5999975 0.23999764 -0.33000237
0.5999975 0.23999764 0.38999763
0.5999975 0.23999764 0.41999763
0.5999975 0.26999763 -0.33000237
0.5999975 0.26999763 0.35999763
0.5999975 0.26999763 0.38999763
0.5999975 0.29999763 -0.33000237
0.5999975 0.29999763 -0.30000237
0.5999975 0.29999763 0.35999763
0.5999975 0.32999763 -0.30000237
0.5999975 0.32999763 -0.27000237
0.5999975 0.32999763 0.32999763
0.5999975 0.35999763 -0.27000237
0.5999975 0.35999763 -0.24000236
0.5999975 0.35999763 0.26999763
0.5999975 0.35999763 0.29999763
0.5999975 0.38999763 -0.24000236
0.5999975 0.38999763 -0.21000236
0.5999975 0.38999763 0.23999764
0.5999975 0.38999763 0.26999763
0.5999975 0.41999763 -0.21000236
0.5999975 0.41999763 -0.18000236
0.5999975 0.41999763 -0.15000236
0.5999975 0.41999763 0.17999764
0.5999975 0.41999763 0.20999764
0.5999975 0.41999763 0.23999764
0.5999975 0.44999763 -0.15000236
0.5999975 0.44999763 -0.12000236
0.5999975 0.44999763 -0.09000236
0.5999975 0.44999763 0.08999764
0.5999975 0.44999763 0.11999764
0.5999975 0.44999763 0.14999764
0.5999975 0.44999763 0.17999764
0.5999975 0.47999763 -0.09000236
0.5999975 0.47999763 -0.060002357
0.5999975 0.47999763 -0.030002357
0.5999975 0.47999763 -2.3581088E-6
0.5999975 0.47999763 0.029997641
0.5999975 0.47999763 0.05999764
0.5999975 0.47999763 0.08999764
0.5999975 0.47999763 0.11999764
0.6299975 -0.39000237 -0.09000236
0.6299975 -0.39000237 -0.060002357
0.6299975 -0.39000237 -0.030002357
0.6299975 -0.39000237 -2.3581088E-6
0.6299975 -0.39000237 0.029997641
0.6299975 -0.39000237 0.05999764
0.6299975 -0.39000237 0.08999764
0.6299975 -0.36000237 -0.15000236
0.6299975 -0.36000237 -0.12000236
0.6299975 -0.36000237 -0.09000236
0.6299975 -0.36000237 -0.060002357
0.6299975 -0.36000237 0.05999764
0.6299975 -0.36000237 0.08999764
0.6299975 -0.36000237 0.11999764
0.6299975 -0.36000237 0.14999764
0.6299975 -0.36000237 0.17999764
0.6299975 -0.33000237 -0.21000236
0.6299975 -0.33000237 -0.18000236
0.6299975 -0.33000237 0.17999764
0.6299975 -0.33000237 0.20999764
0.6299975 -0.33000237 0.23999764
0.6299975 -0.30000237 -0.24000236
0.6299975 -0.30000237 -0.21000236
0.6299975 -0.30000237 0.23999764
0.6299975 -0.30000237 0.26999763
0.6299975 -0.30000237 0.29999763
0.6299975 -0.27000237 -0.27000237
0.6299975 -0.27000237 0.29999763
0.6299975 -0.27000237 0.32999763
0.6299975 -0.24000236 -0.30000237
0.6299975 -0.24000236 0.32999763
0.6299975 -0.24000236 0.35999763
0.6299975 -0.21000236 -0.33000237
0.6299975 -0.21000236 -0.30000237
0.6299975 -0.21000236 0.35999763
0.6299975 -0.21000236 0.38999763
0.6299975 -0.18000236 -0.33000237
0.6299975 -0.18000236 0.38999763
0.6299975 -0.15000236 -0.36000237
0.6299975 -0.15000236 0.38999763
0.6299975 -0.15000236 0.41999763
0.6299975 -0.12000236 -0.36000237
0.6299975 -0.12000236 0.41999763
0.6299975 -0.09000236 -0.39000237
0.6299975 -0.09000236 -0.36000237
0.6299975 -0.09000236 0.41999763
0.6299975 -0.09000236 0.44999763
0.6299975 -0.060002357 -0.39000237
0.6299975 -0.060002357 -0.36000237
0.6299975 -0.060002357 0.41999763
0.6299975 -0.060002357 0.44999763
0.6299975 -0.030002357 -0.39000237
0.6299975 -0.030002357 0.44999763
0.6299975 -2.3581088E-6 -0.39000237
0.6299975 -2.3581088E-6 0.44999763
0.6299975 0.029997641 -0.39000237
0.6299975 0.029997641 0.44999763
0.6299975 0.05999764 -0.39000237
0.6299975 0.05999764 -0.36000237
0.6299975 0.05999764 0.41999763
0.6299975 0.05999764 0.44999763
0.6299975 0.08999764 -0.39000237
0.6299975 0.08999764 -0.36000237
0.6299975 0.08999764 0.41999763
0.6299975 0.08999764 0.44999763
0.6299975 0.11999764 -0.36000237
0.6299975 0.11999764 0.41999763
0.6299975 0.11999764 0.44999763
0.6299975 0.14999764 -0.36000237
0.6299975 0.14999764 0.41999763
0.6299975 0.17999764 -0.36000237
0.6299975 0.17999764 -0.33000237
0.6299975 0.17999764 0.38999763
0.6299975 0.17999764 0.41999763
0.6299975 0.20999764 -0.33000237
0.6299975 0.20999764 0.38999763
0.6299975 0.23999764 -0.33000237
0.6299975 0.23999764 -0.30000237
0.6299975 0.23999764 0.35999763
0.6299975 0.23999764 0.38999763
0.6299975 0.26999763 -0.30000237
0.6299975 0.26999763 0.32999763
0.6299975 0.26999763 0.35999763
0.6299975 0.29999763 -0.30000237
0.6299975 0.29999763 -0.27000237
0.6299975 0.29999763 0.29999763
0.6299975 0.29999763 0.32999763
0.6299975 0.32999763 -0.27000237
0.6299975 0.32999763 -0.24000236
0.6299975 0.32999763 0.26999763
0.6299975 0.32999763 0.29999763
0.6299975 0.35999763 -0.24000236
0.6299975 0.35999763 -0.21000236
0.6299975 0.35999763 0.23999764
0.6299975 0.35999763 0.26999763
0.6299975 0.38999763 -0.21000236
0.6299975 0.38999763 -0.18000236
0.6299975 0.38999763 -0.15000236
0.6299975 0.38999763 0.17999764
0.6299975 0.38999763 0.20999764
0.6299975 0.38999763 0.23999764
0.6299975 0.41999763 -0.15000236
0.6299975 0.41999763 -0.12000236
0.6299975 0.41999763 -0.09000236
0.6299975 0.41999763 -0.060002357
0.6299975 0.41999763 0.05999764
0.6299975 0.41999763 0.08999764
0.6299975 0.41999763 0.11999764
0.6299975 0.41999763 0.14999764
0.6299975 0.41999763 0.17999764
0.6299975 0.44999763 -0.09000236
0.6299975 0.44999763 -0.060002357
0.6299975 0.44999763 -0.030002357
0.6299975 0.44999763 -2.3581088E-6
0.6299975 0.44999763 0.029997641
0.6299975 0.44999763 0.05999764
0.6299975 0.44999763 0.08999764
0.6299975 0.44999763 0.11999764
0.65999746 -0.36000237 -0.09000236
0.65999746 -0.36000237 -0.060002357
0.65999746 -0.36000237 -0.030002357
0.65999746 -0.36000237 -2.3581088E-6
0.65999746 -0.36000237 0.029997641
0.65999746 -0.36000237 0.05999764
0.65999746 -0.36000237 0.08999764
0.65999746 -0.36000237 0.11999764
0.65999746 -0.33000237 -0.18000236
0.65999746 -0.33000237 -0.15000236
0.65999746 -0.33000237 -0.12000236
0.65999746 -0.33000237 -0.09000236
0.65999746 -0.33000237 0.08999764
0.65999746 -0.33000237 0.11999764
0.65999746 -0.33000237 0.14999764
0.65999746 -0.33000237 0.17999764
0.65999746 -0.33000237 0.20999764
0.65999746 -0.30000237 -0.21000236
0.65999746 -0.30000237 -0.18000236
0.65999746 -0.30000237 0.17999764
0.65999746 -0.30000237 0.20999764
0.65999746 -0.30000237 0.23999764
0.65999746 -0.27000237 -0.24000236
0.65999746 -0.27000237 -0.21000236
0.65999746 -0.27000237 0.23999764
0.65999746 -0.27000237 0.26999763
0.65999746 -0.27000237 0.29999763
0.65999746 -0.24000236 -0.27000237
0.65999746 -0.24000236 -0.24000236
0.65999746 -0.24000236 0.29999763
0.65999746 -0.24000236 0.32999763
0.65999746 -0.21000236 -0.30000237
0.65999746 -0.21000236 -0.27000237
0.65999746 -0.21000236 0.32999763
0.65999746 -0.21000236 0.35999763
0.65999746 -0.18000236 -0.33000237
0.65999746 -0.18000236 -0.30000237
0.65999746 -0.18000236 0.32999763
0.65999746 -0.18000236 0.35999763
0.65999746 -0.15000236 -0.33000237
0.65999746 -0.15000236 0.35999763
0.65999746 -0.15000236 0.38999763
0.65999746 -0.12000236 -0.33000237
0.65999746 -0.12000236 0.38999763
0.65999746 -0.09000236 -0.36000237
0.65999746 -0.09000236 -0.33000237
0.65999746 -0.09000236 0.38999763
0.65999746 -0.09000236 0.41999763
0.65999746 -0.060002357 -0.36000237
0.65999746 -0.060002357 0.38999763
0.65999746 -0.060002357 0.41999763
0.65999746 -0.030002357 -0.36000237
0.65999746 -0.030002357 0.38999763
0.65999746 -0.030002357 0.41999763
0.65999746 -2.3581088E-6 -0.36000237
0.65999746 -2.3581088E-6 0.41999763
0.65999746 0.029997641 -0.36000237
0.65999746 0.029997641 0.41999763
0.65999746 0.05999764 -0.36000237
0.65999746 0.05999764 0.38999763
0.65999746 0.05999764 0.41999763
0.65999746 0.08999764 -0.36000237
0.65999746 0.08999764 -0.33000237
0.65999746 0.08999764 0.38999763
0.65999746 0.08999764 0.41999763
0.65999746 0.11999764 -0.36000237
0.65999746 0.11999764 -0.33000237
0.65999746 0.11999764 0.38999763
0.65999746 0.11999764 0.41999763
0.65999746 0.14999764 -0.33000237
0.65999746 0.14999764 0.35999763
0.65999746 0.14999764 0.38999763
0.65999746 0.17999764 -0.33000237
0.65999746 0.17999764 -0.30000237
0.65999746 0.17999764 0.35999763
0.65999746 0.17999764 0.38999763
0.65999746 0.20999764 -0.33000237
0.65999746 0.20999764 -0.30000237
0.65999746 0.20999764 0.32999763
0.65999746 0.20999764 0.35999763
0.65999746 0.23999764 -0.30000237
0.65999746 0.23999764 -0.27000237
0.65999746 0.23999764 0.32999763
0.65999746 0.26999763 -0.27000237
0.65999746 0.26999763 0.29999763
0.65999746 0.26999763 0.32999763
0.65999746 0.29999763 -0.27000237
0.65999746 0.29999763 -0.24000236
0.65999746 0.29999763 0.26999763
0.65999746 0.29999763 0.29999763
0.65999746 0.32999763 -0.24000236
0.65999746 0.32999763 -0.21000236
0.65999746 0.32999763 -0.18000236
0.65999746 0.32999763 0.20999764
0.65999746 0.32999763 0.23999764
0.65999746 0.32999763 0.26999763
0.65999746 0.35999763 -0.21000236
0.65999746 0.35999763 -0.18000236
0.65999746 0.35999763 -0.15000236
0.65999746 0.35999763 0.14999764
0.65999746 0.35999763 0.17999764
0.65999746 0.35999763 0.20999764
0.65999746 0.38999763 -0.15000236
0.65999746 0.38999763 -0.12000236
0.65999746 0.38999763 -0.09000236
0.65999746 0.38999763 -0.060002357
0.65999746 0.38999763 -0.030002357
0.65999746 0.38999763 0.05999764
0.65999746 0.38999763 0.08999764
0.65999746 0.38999763 0.11999764
0.65999746 0.38999763 0.14999764
0.65999746 0.38999763 0.17999764
0.65999746 0.41999763 -0.09000236
0.65999746 0.41999763 -0.060002357
0.65999746 0.41999763 -0.030002357
0.65999746 0.41999763 -2.3581088E-6
0.65999746 0.41999763 0.029997641
0.65999746 0.41999763 0.05999764
0.65999746 0.41999763 0.08999764
0.65999746 0.41999763 0.11999764
0.68999743 -0.33000237 -0.12000236
0.68999743 -0.33000237 -0.09000236
0.68999743 -0.33000237 -0.060002357
0.68999743 -0.33000237 -0.030002357
0.68999743 -0.33000237 -2.3581088E-6
0.68999743 -0.33000237 0.029997641
0.68999743 -0.33000237 0.05999764
0.68999743 -0.33000237 0.08999764
0.68999743 -0.33000237 0.11999764
0.68999743 -0.33000237 0.14999764
0.68999743 -0.30000237 -0.18000236
0.68999743 -0.30000237 -0.15000236
0.68999743 -0.30000237 -0.12000236
0.68999743 -0.30000237 -0.09000236
0.68999743 -0.30000237 0.11999764
0.68999743 -0.30000237 0.14999764
0.68999743 -0.30000237 0.17999764
0.68999743 -0.30000237 0.20999764
0.68999743 -0.27000237 -0.21000236
0.68999743 -0.27000237 -0.18000236
0.68999743 -0.27000237 0.17999764
0.68999743 -0.27000237 0.20999764
0.68999743 -0.27000237 0.23999764
0.68999743 -0.24000236 -0.24000236
0.68999743 -0.24000236 -0.21000236
0.68999743 -0.24000236 0.23999764
0.68999743 -0.24000236 0.26999763
0.68999743 -0.21000236 -0.27000237
0.68999743 -0.21000236 -0.24000236
0.68999743 -0.21000236 0.26999763
0.68999743 -0.21000236 0.29999763
0.68999743 -0.18000236 -0.30000237
0.68999743 -0.18000236 -0.27000237
0.68999743 -0.18000236 0.29999763
0.68999743 -0.18000236 0.32999763
0.68999743 -0.15000236 -0.30000237
0.68999743 -0.15000236 0.32999763
0.68999743 -0.15000236 0.35999763
0.68999743 -0.12000236 -0.33000237
0.68999743 -0.12000236 -0.30000237
0.68999743 -0.12000236 0.32999763
0.68999743 -0.12000236 0.35999763
0.68999743 -0.09000236 -0.33000237
0.68999743 -0.09000236 -0.30000237
0.68999743 -0.09000236 0.35999763
0.68999743 -0.09000236 0.38999763
0.68999743 -0.060002357 -0.33000237
0.68999743 -0.060002357 0.35999763
0.68999743 -0.060002357 0.38999763
0.68999743 -0.030002357 -0.33000237
0.68999743 -0.030002357 0.35999763
0.68999743 -0.030002357 0.38999763
0.68999743 -2.3581088E-6 -0.33000237
0.68999743 -2.3581088E-6 0.35999763
0.68999743 -2.3581088E-6 0.38999763
0.68999743 0.029997641 -0.33000237
0.68999743 0.029997641 0.35999763
0.68999743 0.029997641 0.38999763
0.68999743 0.05999764 -0.33000237
0.68999743 0.05999764 0.35999763
0.68999743 0.05999764 0.38999763
0.68999743 0.08999764 -0.33000237
0.68999743 0.08999764 0.35999763
0.68999743 0.08999764 0.38999763
0.68999743 0.11999764 -0.33000237
0.68999743 0.11999764 -0.30000237
0.68999743 0.11999764 0.35999763
0.68999743 0.14999764 -0.33000237
0.68999743 0.14999764 -0.30000237
0.68999743 0.14999764 0.32999763
0.68999743 0.14999764 0.35999763
0.68999743 0.17999764 -0.30000237
0.68999743 0.17999764 -0.27000237
0.68999743 0.17999764 0.32999763
0.68999743 0.17999764 0.35999763
0.68999743 0.20999764 -0.30000237
0.68999743 0.20999764 -0.27000237
0.68999743 0.20999764 0.29999763
0.68999743 0.20999764 0.32999763
0.68999743 0.23999764 -0.27000237
0.68999743 0.23999764 -0.24000236
0.68999743 0.23999764 0.26999763
0.68999743 0.23999764 0.29999763
0.68999743 0.26999763 -0.24000236
0.68999743 0.26999763 -0.21000236
0.68999743 0.26999763 0.23999764
0.68999743 0.26999763 0.26999763
0.68999743 0.29999763 -0.21000236
0.68999743 0.29999763 -0.18000236
0.68999743 0.29999763 0.20999764
0.68999743 0.29999763 0.23999764
0.68999743 0.32999763 -0.18000236
0.68999743 0.32999763 -0.15000236
0.68999743 0.32999763 -0.12000236
0.68999743 0.32999763 0.14999764
0.68999743 0.32999763 0.17999764
0.68999743 0.32999763 0.20999764
0.68999743 0.35999763 -0.15000236
0.68999743 0.35999763 -0.12000236
0.68999743 0.35999763 -0.09000236
0.68999743 0.35999763 -0.060002357
0.68999743 0.35999763 -0.030002357
0.68999743 0.35999763 -2.3581088E-6
0.68999743 0.35999763 0.029997641
0.68999743 0.35999763 0.05999764
0.68999743 0.35999763 0.08999764
0.68999743 0.35999763 0.11999764
0.68999743 0.35999763 0.14999764
0.68999743 0.35999763 0.17999764
0.68999743 0.38999763 -0.09000236
0.68999743 0.38999763 -0.060002357
0.68999743 0.38999763 -0.030002357
0.68999743 0.38999763 -2.3581088E-6
0.68999743 0.38999763 0.029997641
0.68999743 0.38999763 0.05999764
0.68999743 0.38999763 0.08999764
0.7199974 -0.33000237 -0.030002357
0.7199974 -0.33000237 -2.3581088E-6
0.7199974 -0.33000237 0.029997641
0.7199974 -0.30000237 -0.12000236
0.7199974 -0.30000237 -0.09000236
0.7199974 -0.30000237 -0.060002357
0.7199974 -0.30000237 -0.030002357
0.7199974 -0.30000237 -2.3581088E-6
0.7199974 -0.30000237 0.029997641
0.7199974 -0.30000237 0.05999764
0.7199974 -0.30000237 0.08999764
0.7199974 -0.30000237 0.11999764
0.7199974 -0.30000237 0.14999764
0.7199974 -0.27000237 -0.18000236
0.7199974 -0.27000237 -0.15000236
0.7199974 -0.27000237 -0.12000236
0.7199974 -0.27000237 -0.09000236
0.7199974 -0.27000237 0.11999764
0.7199974 -0.27000237 0.14999764
0.7199974 -0.27000237 0.17999764
0.7199974 -0.27000237 0.20999764
0.7199974 -0.24000236 -0.21000236
0.7199974 -0.24000236 -0.18000236
0.7199974 -0.24000236 0.17999764
0.7199974 -0.24000236 0.20999764
0.7199974 -0.24000236 0.23999764
0.7199974 -0.21000236 -0.24000236
0.7199974 -0.21000236 -0.21000236
0.7199974 -0.21000236 0.23999764
0.7199974 -0.21000236 0.26999763
0.7199974 -0.18000236 -0.27000237
0.7199974 -0.18000236 -0.24000236
0.7199974 -0.18000236 0.26999763
0.7199974 -0.18000236 0.29999763
0.7199974 -0.15000236 -0.27000237
0.7199974 -0.15000236 0.29999763
0.7199974 -0.15000236 0.32999763
0.7199974 -0.12000236 -0.30000237
0.7199974 -0.12000236 -0.27000237
0.7199974 -0.12000236 0.29999763
0.7199974 -0.12000236 0.32999763
0.7199974 -0.09000236 -0.30000237
0.7199974 -0.09000236 -0.27000237
0.7199974 -0.09000236 0.32999763
0.7199974 -0.09000236 0.35999763
0.7199974 -0.060002357 -0.30000237
0.7199974 -0.060002357 0.32999763
0.7199974 -0.060002357 0.35999763
0.7199974 -0.030002357 -0.33000237
0.7199974 -0.030002357 -0.30000237
0.7199974 -0.030002357 0.32999763
0.7199974 -0.030002357 0.35999763
0.7199974 -2.3581088E-6 -0.33000237
0.7199974 -2.3581088E-6 -0.30000237
0.7199974 -2.3581088E-6 0.32999763
0.7199974 -2.3581088E-6 0.35999763
0.7199974 0.029997641 -0.33000237
0.7199974 0.029997641 -0.30000237
0.7199974 0.029997641 0.32999763
0.7199974 0.029997641 0.35999763
0.7199974 0.05999764 -0.30000237
0.7199974 0.05999764 0.32999763
0.7199974 0.05999764 0.35999763
0.7199974 0.08999764 -0.30000237
0.7199974 0.08999764 0.32999763
0.7199974 0.08999764 0.35999763
0.7199974 0.11999764 -0.30000237
0.7199974 0.11999764 -0.27000237
0.7199974 0.11999764 0.29999763
0.7199974 0.11999764 0.32999763
0.7199974 0.14999764 -0.30000237
0.7199974 0.14999764 -0.27000237
0.7199974 0.14999764 0.29999763
0.7199974 0.14999764 0.32999763
0.7199974 0.17999764 -0.27000237
0.7199974 0.17999764 -0.24000236
0.7199974 0.17999764 0.26999763
0.7199974 0.17999764 0.29999763
0.7199974 0.20999764 -0.27000237
0.7199974 0.20999764 -0.24000236
0.7199974 0.20999764 0.23999764
0.7199974 0.20999764 0.26999763
0.7199974 0.20999764 0.29999763
0.7199974 0.23999764 -0.24000236
0.7199974 0.23999764 -0.21000236
0.7199974 0.23999764 0.20999764
0.7199974 0.23999764 0.23999764
0.7199974 0.23999764 0.26999763
0.7199974 0.26999763 -0.21000236
0.7199974 0.26999763 -0.18000236
0.7199974 0.26999763 0.17999764
0.7199974 0.26999763 0.20999764
0.7199974 0.26999763 0.23999764
0.7199974 0.29999763 -0.18000236
0.7199974 0.29999763 -0.15000236
0.7199974 0.29999763 -0.12000236
0.7199974 0.29999763 0.11999764
0.7199974 0.29999763 0.14999764
0.7199974 0.29999763 0.17999764
0.7199974 0.29999763 0.20999764
0.7199974 0.32999763 -0.15000236
0.7199974 0.32999763 -0.12000236
0.7199974 0.32999763 -0.09000236
0.7199974 0.32999763 -0.060002357
0.7199974 0.32999763 -0.030002357
0.7199974 0.32999763 -2.3581088E-6
0.7199974 0.32999763 0.029997641
0.7199974 0.32999763 0.05999764
0.7199974 0.32999763 0.08999764
0.7199974 0.32999763 0.11999764
0.7199974 0.32999763 0.14999764
0.7199974 0.35999763 -0.09000236
0.7199974 0.35999763 -0.060002357
0.7199974 0.35999763 -0.030002357
0.7199974 0.35999763 -2.3581088E-6
0.7199974 0.35999763 0.029997641
0.7199974 0.35999763 0.05999764
0.7199974 0.35999763 0.08999764
0.7499974 -0.30000237 -0.060002357
0.7499974 -0.30000237 -0.030002357
0.7499974 -0.30000237 -2.3581088E-6
0.7499974 -0.30000237 0.029997641
0.7499974 -0.30000237 0.05999764
0.7499974 -0.27000237 -0.12000236
0.7499974 -0.27000237 -0.09000236
0.7499974 -0.27000237 -0.060002357
0.7499974 -0.27000237 -0.030002357
0.7499974 -0.27000237 -2.3581088E-6
0.7499974 -0.27000237 0.029997641
0.7499974 -0.27000237 0.05999764
0.7499974 -0.27000237 0.08999764
0.7499974 -0.27000237 0.11999764
0.7499974 -0.27000237 0.14999764
0.7499974 -0.24000236 -0.18000236
0.7499974 -0.24000236 -0.15000236
0.7499974 -0.24000236 -0.12000236
0.7499974 -0.24000236 -0.09000236
0.7499974 -0.24000236 0.11999764
0.7499974 -0.24000236 0.14999764
0.7499974 -0.24000236 0.17999764
0.7499974 -0.24000236 0.20999764
0.7499974 -0.21000236 -0.21000236
0.7499974 -0.21000236 -0.18000236
0.7499974 -0.21000236 -0.15000236
0.7499974 -0.21000236 0.17999764
0.7499974 -0.21000236 0.20999764
0.7499974 -0.21000236 0.23999764
0.7499974 -0.18000236 -0.24000236
0.7499974 -0.18000236 -0.21000236
0.7499974 -0.18000236 -0.18000236
0.7499974 -0.18000236 0.20999764
0.7499974 -0.18000236 0.23999764
0.7499974 -0.18000236 0.26999763
0.7499974 -0.15000236 -0.24000236
0.7499974 -0.15000236 -0.21000236
0.7499974 -0.15000236 0.23999764
0.7499974 -0.15000236 0.26999763
0.7499974 -0.12000236 -0.27000237
0.7499974 -0.12000236 -0.24000236
0.7499974 -0.12000236 0.26999763
0.7499974 -0.12000236 0.29999763
0.7499974 -0.09000236 -0.27000237
0.7499974 -0.09000236 -0.24000236
0.7499974 -0.09000236 0.26999763
0.7499974 -0.09000236 0.29999763
0.7499974 -0.060002357 -0.30000237
0.7499974 -0.060002357 -0.27000237
0.7499974 -0.060002357 0.29999763
0.7499974 -0.060002357 0.32999763
0.7499974 -0.030002357 -0.30000237
0.7499974 -0.030002357 -0.27000237
0.7499974 -0.030002357 0.29999763
0.7499974 -0.030002357 0.32999763
0.7499974 -2.3581088E-6 -0.30000237
0.7499974 -2.3581088E-6 -0.27000237
0.7499974 -2.3581088E-6 0.29999763
0.7499974 -2.3581088E-6 0.32999763
0.7499974 0.029997641 -0.30000237
0.7499974 0.029997641 -0.27000237
0.7499974 0.029997641 0.29999763
0.7499974 0.029997641 0.32999763
0.7499974 0.05999764 -0.30000237
0.7499974 0.05999764 -0.27000237
0.7499974 0.05999764 0.29999763
0.7499974 0.05999764 0.32999763
0.7499974 0.08999764 -0.27000237
0.7499974 0.08999764 0.26999763
0.7499974 0.08999764 0.29999763
0.7499974 0.08999764 0.32999763
0.7499974 0.11999764 -0.27000237
0.7499974 0.11999764 -0.24000236
0.7499974 0.11999764 0.26999763
0.7499974 0.11999764 0.29999763
0.7499974 0.14999764 -0.27000237
0.7499974 0.14999764 -0.24000236
0.7499974 0.14999764 0.23999764
0.7499974 0.14999764 0.26999763
0.7499974 0.14999764 0.29999763
0.7499974 0.17999764 -0.24000236
0.7499974 0.17999764 -0.21000236
0.7499974 0.17999764 0.23999764
0.7499974 0.17999764 0.26999763
0.7499974 0.20999764 -0.24000236
0.7499974 0.20999764 -0.21000236
0.7499974 0.20999764 -0.18000236
0.7499974 0.20999764 0.20999764
0.7499974 0.20999764 0.23999764
0.7499974 0.23999764 -0.21000236
0.7499974 0.23999764 -0.18000236
0.7499974 0.23999764 -0.15000236
0.7499974 0.23999764 0.14999764
0.7499974 0.23999764 0.17999764
0.7499974 0.23999764 0.20999764
0.7499974 0.23999764 0.23999764
0.7499974 0.26999763 -0.18000236
0.7499974 0.26999763 -0.15000236
0.7499974 0.26999763 -0.12000236
0.7499974 0.26999763 -0.09000236
0.7499974 0.26999763 0.08999764
0.7499974 0.26999763 0.11999764
0.7499974 0.26999763 0.14999764
0.7499974 0.26999763 0.17999764
0.7499974 0.29999763 -0.12000236
0.7499974 0.29999763 -0.09000236
0.7499974 0.29999763 -0.060002357
0.7499974 0.29999763 -0.030002357
0.7499974 0.29999763 -2.3581088E-6
0.7499974 0.29999763 0.029997641
0.7499974 0.29999763 0.05999764
0.7499974 0.29999763 0.08999764
0.7499974 0.29999763 0.11999764
0.7499974 0.29999763 0.14999764
0.7499974 0.32999763 -0.060002357
0.7499974 0.32999763 -0.030002357
0.7499974 0.32999763 -2.3581088E-6
0.7499974 0.32999763 0.029997641
0.7499974 0.32999763 0.05999764
0.7499974 0.32999763 0.08999764
0.77999735 -0.27000237 -0.060002357
0.77999735 -0.27000237 -0.030002357
0.77999735 -0.27000237 -2.3581088E-6
0.77999735 -0.27000237 0.029997641
0.77999735 -0.27000237 0.05999764
0.77999735 -0.27000237 0.08999764
0.77999735 -0.24000236 -0.15000236
0.77999735 -0.24000236 -0.12000236
0.77999735 -0.24000236 -0.09000236
0.77999735 -0.24000236 -0.060002357
0.77999735 -0.24000236 -0.030002357
0.77999735 -0.24000236 -2.3581088E-6
0.77999735 -0.24000236 0.029997641
0.77999735 -0.24000236 0.05999764
0.77999735 -0.24000236 0.08999764
0.77999735 -0.24000236 0.11999764
0.77999735 -0.24000236 0.14999764
0.77999735 -0.21000236 -0.18000236
0.77999735 -0.21000236 -0.15000236
0.77999735 -0.21000236 -0.12000236
0.77999735 -0.21000236 -0.09000236
0.77999735 -0.21000236 0.08999764
0.77999735 -0.21000236 0.11999764
0.77999735 -0.21000236 0.14999764
0.77999735 -0.21000236 0.17999764
0.77999735 -0.18000236 -0.21000236
0.77999735 -0.18000236 -0.18000236
0.77999735 -0.18000236 -0.15000236
0.77999735 -0.18000236 0.14999764
0.77999735 -0.18000236 0.17999764
0.77999735 -0.18000236 0.20999764
0.77999735 -0.15000236 -0.24000236
0.77999735 -0.15000236 -0.21000236
0.77999735 -0.15000236 -0.18000236
0.77999735 -0.15000236 0.17999764
0.77999735 -0.15000236 0.20999764
0.77999735 -0.15000236 0.23999764
0.77999735 -0.12000236 -0.24000236
0.77999735 -0.12000236 -0.21000236
0.77999735 -0.12000236 0.20999764
0.77999735 -0.12000236 0.23999764
0.77999735 -0.12000236 0.26999763
0.77999735 -0.09000236 -0.24000236
0.77999735 -0.09000236 -0.21000236
0.77999735 -0.09000236 0.23999764
0.77999735 -0.09000236 0.26999763
0.77999735 -0.060002357 -0.27000237
0.77999735 -0.060002357 -0.24000236
0.77999735 -0.060002357 0.23999764
0.77999735 -0.060002357 0.26999763
0.77999735 -0.060002357 0.29999763
0.77999735 -0.030002357 -0.27000237
0.77999735 -0.030002357 -0.24000236
0.77999735 -0.030002357 0.26999763
0.77999735 -0.030002357 0.29999763
0.77999735 -2.3581088E-6 -0.27000237
0.77999735 -2.3581088E-6 -0.24000236
0.77999735 -2.3581088E-6 0.26999763
0.77999735 -2.3581088E-6 0.29999763
0.77999735 0.029997641 -0.27000237
0.77999735 0.029997641 -0.24000236
0.77999735 0.029997641 0.26999763
0.77999735 0.029997641 0.29999763
0.77999735 0.05999764 -0.27000237
0.77999735 0.05999764 -0.24000236
0.77999735 0.05999764 0.23999764
0.77999735 0.05999764 0.26999763
0.77999735 0.05999764 0.29999763
0.77999735 0.08999764 -0.27000237
0.77999735 0.08999764 -0.24000236
0.77999735 0.08999764 -0.21000236
0.77999735 0.08999764 0.23999764
0.77999735 0.08999764 0.26999763
0.77999735 0.11999764 -0.24000236
0.77999735 0.11999764 -0.21000236
0.77999735 0.11999764 0.23999764
0.77999735 0.11999764 0.26999763
0.77999735 0.14999764 -0.24000236
0.77999735 0.14999764 -0.21000236
0.77999735 0.14999764 -0.18000236
0.77999735 0.14999764 0.20999764
0.77999735 0.14999764 0.23999764
0.77999735 0.14999764 0.26999763
0.77999735 0.17999764 -0.21000236
0.77999735 0.17999764 -0.18000236
0.77999735 0.17999764 -0.15000236
0.77999735 0.17999764 0.17999764
0.77999735 0.17999764 0.20999764
0.77999735 0.17999764 0.23999764
0.77999735 0.20999764 -0.18000236
0.77999735 0.20999764 -0.15000236
0.77999735 0.20999764 -0.12000236
0.77999735 0.20999764 0.14999764
0.77999735 0.20999764 0.17999764
0.77999735 0.20999764 0.20999764
0.77999735 0.23999764 -0.15000236
0.77999735 0.23999764 -0.12000236
0.77999735 0.23999764 -0.09000236
0.77999735 0.23999764 -0.060002357
0.77999735 0.23999764 0.05999764
0.77999735 0.23999764 0.08999764
0.77999735 0.23999764 0.11999764
0.77999735 0.23999764 0.14999764
0.77999735 0.23999764 0.17999764
0.77999735 0.26999763 -0.12000236
0.77999735 0.26999763 -0.09000236
0.77999735 0.26999763 -0.060002357
0.77999735 0.26999763 -0.030002357
0.77999735 0.26999763 -2.3581088E-6
0.77999735 0.26999763 0.029997641
0.77999735 0.26999763 0.05999764
0.77999735 0.26999763 0.08999764
0.77999735 0.26999763 0.11999764
0.77999735 0.26999763 0.14999764
0.77999735 0.29999763 -0.060002357
0.77999735 0.29999763 -0.030002357
0.77999735 0.29999763 -2.3581088E-6
0.77999735 0.29999763 0.029997641
0.77999735 0.29999763 0.05999764
0.8099973 -0.24000236 -0.09000236
0.8099973 -0.24000236 -0.060002357
0.8099973 -0.24000236 -0.030002357
0.8099973 -0.24000236 -2.3581088E-6
0.8099973 -0.24000236 0.029997641
0.8099973 -0.24000236 0.05999764
0.8099973 -0.24000236 0.08999764
0.8099973 -0.21000236 -0.12000236
0.8099973 -0.21000236 -0.09000236
0.8099973 -0.21000236 -0.060002357
0.8099973 -0.21000236 -0.030002357
0.8099973 -0.21000236 -2.3581088E-6
0.8099973 -0.21000236 0.029997641
0.8099973 -0.21000236 0.05999764
0.8099973 -0.21000236 0.08999764
0.8099973 -0.21000236 0.11999764
0.8099973 -0.21000236 0.14999764
0.8099973 -0.18000236 -0.18000236
0.8099973 -0.18000236 -0.15000236
0.8099973 -0.18000236 -0.12000236
0.8099973 -0.18000236 -0.09000236
0.8099973 -0.18000236 -0.060002357
0.8099973 -0.18000236 0.05999764
0.8099973 -0.18000236 0.08999764
0.8099973 -0.18000236 0.11999764
0.8099973 -0.18000236 0.14999764
0.8099973 -0.18000236 0.17999764
0.8099973 -0.15000236 -0.18000236
0.8099973 -0.15000236 -0.15000236
0.8099973 -0.15000236 -0.12000236
0.8099973 -0.15000236 0.11999764
0.8099973 -0.15000236 0.14999764
0.8099973 -0.15000236 0.17999764
0.8099973 -0.15000236 0.20999764
0.8099973 -0.12000236 -0.21000236
0.8099973 -0.12000236 -0.18000236
0.8099973 -0.12000236 -0.15000236
0.8099973 -0.12000236 0.17999764
0.8099973 -0.12000236 0.20999764
0.8099973 -0.12000236 0.23999764
0.8099973 -0.09000236 -0.24000236
0.8099973 -0.09000236 -0.21000236
0.8099973 -0.09000236 -0.18000236
0.8099973 -0.09000236 0.17999764
0.8099973 -0.09000236 0.20999764
0.8099973 -0.09000236 0.23999764
0.8099973 -0.060002357 -0.24000236
0.8099973 -0.060002357 -0.21000236
0.8099973 -0.060002357 -0.18000236
0.8099973 -0.060002357 0.20999764
0.8099973 -0.060002357 0.23999764
0.8099973 -0.060002357 0.26999763
0.8099973 -0.030002357 -0.24000236
0.8099973 -0.030002357 -0.21000236
0.8099973 -0.030002357 0.20999764
0.8099973 -0.030002357 0.23999764
0.8099973 -0.030002357 0.26999763
0.8099973 -2.3581088E-6 -0.24000236
0.8099973 -2.3581088E-6 -0.21000236
0.8099973 -2.3581088E-6 0.20999764
0.8099973 -2.3581088E-6 0.23999764
0.8099973 -2.3581088E-6 0.26999763
0.8099973 0.029997641 -0.24000236
0.8099973 0.029997641 -0.21000236
0.8099973 0.029997641 0.20999764
0.8099973 0.029997641 0.23999764
0.8099973 0.029997641 0.26999763
0.8099973 0.05999764 -0.24000236
0.8099973 0.05999764 -0.21000236
0.8099973 0.05999764 -0.18000236
0.8099973 0.05999764 0.20999764
0.8099973 0.05999764 0.23999764
0.8099973 0.05999764 0.26999763
0.8099973 0.08999764 -0.24000236
0.8099973 0.08999764 -0.21000236
0.8099973 0.08999764 -0.18000236
0.8099973 0.08999764 0.20999764
0.8099973 0.08999764 0.23999764
0.8099973 0.11999764 -0.21000236
0.8099973 0.11999764 -0.18000236
0.8099973 0.11999764 -0.15000236
0.8099973 0.11999764 0.17999764
0.8099973 0.11999764 0.20999764
0.8099973 0.11999764 0.23999764
0.8099973 0.14999764 -0.21000236
0.8099973 0.14999764 -0.18000236
0.8099973 0.14999764 -0.15000236
0.8099973 0.14999764 0.14999764
0.8099973 0.14999764 0.17999764
0.8099973 0.14999764 0.20999764
0.8099973 0.17999764 -0.18000236
0.8099973 0.17999764 -0.15000236
0.8099973 0.17999764 -0.12000236
0.8099973 0.17999764 -0.09000236
0.8099973 0.17999764 0.11999764
0.8099973 0.17999764 0.14999764
0.8099973 0.17999764 0.17999764
0.8099973 0.17999764 0.20999764
0.8099973 0.20999764 -0.15000236
0.8099973 0.20999764 -0.12000236
0.8099973 0.20999764 -0.09000236
0.8099973 0.20999764 -0.060002357
0.8099973 0.20999764 -0.030002357
0.8099973 0.20999764 -2.3581088E-6
0.8099973 0.20999764 0.029997641
0.8099973 0.20999764 0.05999764
0.8099973 0.20999764 0.08999764
0.8099973 0.20999764 0.11999764
0.8099973 0.20999764 0.14999764
0.8099973 0.20999764 0.17999764
0.8099973 0.23999764 -0.12000236
0.8099973 0.23999764 -0.09000236
0.8099973 0.23999764 -0.060002357
0.8099973 0.23999764 -0.030002357
0.8099973 0.23999764 -2.3581088E-6
0.8099973 0.23999764 0.029997641
0.8099973 0.23999764 0.05999764
0.8099973 0.23999764 0.08999764
0.8099973 0.23999764 0.11999764
0.8099973 0.26999763 -0.060002357
0.8099973 0.26999763 -0.030002357
0.8099973 0.26999763 -2.3581088E-6
0.8099973 0.26999763 0.029997641
0.8099973 0.26999763 0.05999764
0.8399973 -0.21000236 -0.09000236
0.8399973 -0.21000236 -0.060002357
0.8399973 -0.21000236 -0.030002357
0.8399973 -0.21000236 -2.3581088E-6
0.8399973 -0.21000236 0.029997641
0.8399973 -0.21000236 0.05999764
0.8399973 -0.21000236 0.08999764
0.8399973 -0.18000236 -0.12000236
0.8399973 -0.18000236 -0.09000236
0.8399973 -0.18000236 -0.060002357
0.8399973 -0.18000236 -0.030002357
0.8399973 -0.18000236 -2.3581088E-6
0.8399973 -0.18000236 0.029997641
0.8399973 -0.18000236 0.05999764
0.8399973 -0.18000236 0.08999764
0.8399973 -0.18000236 0.11999764
0.8399973 -0.18000236 0.14999764
0.8399973 -0.15000236 -0.15000236
0.8399973 -0.15000236 -0.12000236
0.8399973 -0.15000236 -0.09000236
0.8399973 -0.15000236 -0.060002357
0.8399973 -0.15000236 -0.030002357
0.8399973 -0.15000236 -2.3581088E-6
0.8399973 -0.15000236 0.029997641
0.8399973 -0.15000236 0.05999764
0.8399973 -0.15000236 0.08999764
0.8399973 -0.15000236 0.11999764
0.8399973 -0.15000236 0.14999764
0.8399973 -0.15000236 0.17999764
0.8399973 -0.12000236 -0.18000236
0.8399973 -0.12000236 -0.15000236
0.8399973 -0.12000236 -0.12000236
0.8399973 -0.12000236 -0.09000236
0.8399973 -0.12000236 0.08999764
0.8399973 -0.12000236 0.11999764
0.8399973 -0.12000236 0.14999764
0.8399973 -0.12000236 0.17999764
0.8399973 -0.12000236 0.20999764
0.8399973 -0.09000236 -0.21000236
0.8399973 -0.09000236 -0.18000236
0.8399973 -0.09000236 -0.15000236
0.8399973 -0.09000236 -0.12000236
0.8399973 -0.09000236 0.14999764
0.8399973 -0.09000236 0.17999764
0.8399973 -0.09000236 0.20999764
0.8399973 -0.060002357 -0.21000236
