-700.0 -700.0 -100.0 700.0 700.0 3000.0 10 0.002 0.0008 0 
605.0 34.6410161514 0.0 245.0 311.769145362 0.0
642.280531016 23.7263728066 30.0 580.524779141 213.53735526 270.0
614.354073591 -22.5241728733 30.0 329.186662317 -202.71755586 270.0
147.5 368.060796608 0.0 -272.5 541.265877365 0.0
184.829469112 348.452605233 30.0 63.4652220093 364.792154989 270.0
237.280531016 335.495518169 30.0 535.524779141 248.178371411 270.0
-332.5 506.624861214 0.0 -392.5 56.291651246 0.0
-341.687907098 544.368069812 30.0 -475.191163883 395.980528633 270.0
-287.670530888 543.308321085 30.0 10.9652220093 386.442790083 270.0
-392.5 -56.291651246 0.0 -332.5 -506.624861214 0.0
-394.183542703 -14.1592869975 30.0 -347.651884326 -127.433582978 270.0
-409.187907098 37.7432085985 30.0 -482.691163883 339.688877387 270.0
-272.5 -541.265877365 0.0 147.5 -368.060796608 0.0
-300.592623918 -568.094442619 30.0 -105.333615259 -609.517883893 270.0
-326.683542703 -520.784148211 30.0 -340.151884326 -183.725234224 270.0
245.0 -311.769145362 0.0 605.0 -34.6410161514 0.0
209.354073591 -334.293318236 30.0 284.186662317 -237.358572011 270.0
171.907376082 -373.238726768 30.0 -52.8336152588 -587.867248798 270.0
520.354248253 250.220815131 300.0 100.745753025 353.877511644 300.0
557.244079231 255.25665535 330.0 432.754231826 399.200073617 570.0
548.366257235 204.737507726 330.0 352.85383386 -55.4722549947 570.0
-5.72268508878 367.894347436 300.0 -437.86169477 376.372337258 300.0
34.6653744758 362.992616931 330.0 -74.3691586892 332.256762715 570.0
85.1845220993 371.870438927 330.0 380.303169922 412.157160681 570.0
-476.874706585 325.529590389 300.0 -356.839791424 -89.690374379 300.0
-499.680787634 354.959201048 330.0 -562.094520858 175.176121548 570.0
-451.491011416 372.530355481 330.0 -128.386534899 333.316511443 570.0
-315.744508244 -188.903164383 300.0 -107.017157962 -567.385519644 300.0
-331.693514887 -151.475213538 330.0 -250.558217746 -230.533962041 570.0
-364.641508077 -112.163259317 330.0 -547.090156462 123.273625952 570.0
-43.479541668 -575.75040552 300.0 256.094038399 -264.187137265 300.0
-57.5632915977 -610.215856398 330.0 129.340289032 -574.376195165 570.0
-96.8752458191 -577.267863207 330.0 -224.467298961 -277.844256448 570.0
321.467193333 -178.991183053 300.0 544.878852732 191.013182386 300.0
297.028140411 -211.517403393 330.0 324.927376435 -101.722800675 570.0
279.456985978 -259.707179611 330.0 166.78698654 -535.430786633 570.0
366.673853277 408.315178904 600.0 -37.4793277114 337.292602934 600.0
-136.188251552 310.843626506 600.0 -521.706461293 170.274391043 600.0
-536.94824432 113.391282389 600.0 -273.364298794 -201.104351382 600.0
-201.104351382 -273.364298794 600.0 113.391282389 -536.94824432 600.0
170.274391043 -521.706461293 600.0 310.843626506 -136.188251552 600.0
337.292602934 -37.4793277114 600.0 408.315178904 366.673853277 600.0
567.456106203 67.0991036338 6.0 627.104955828 49.6356742822 54.0
561.870814718 57.8489944978 6.0 576.837332463 -33.6153079417 54.0
627.104955828 49.6356742822 54.0 567.456106203 67.0991036338 6.0
628.975770546 38.2026364773 60.0 584.293438667 -35.7982366107 60.0
576.837332463 -33.6153079417 54.0 561.870814718 57.8489944978 6.0
584.293438667 -35.7982366107 60.0 628.975770546 38.2026364773 60.0
102.465893822 385.789793428 6.0 162.193044402 354.416687228 54.0
112.956106203 383.198376015 6.0 256.604955828 331.093930512 54.0
162.193044402 354.416687228 54.0 102.465893822 385.789793428 6.0
180.149150605 347.90363154 60.0 264.070849651 327.172292237 60.0
256.604955828 331.093930512 54.0 112.956106203 383.198376015 6.0
264.070849651 327.172292237 60.0 180.149150605 347.90363154 60.0
-341.83758142 457.881851688 6.0 -356.538232777 518.270985445 54.0
-331.034106178 457.669901942 6.0 -259.306955598 516.363437735 54.0
-356.538232777 518.270985445 54.0 -341.83758142 457.881851688 6.0
-347.572338954 525.607677419 60.0 -261.144537018 523.912079455 60.0
-259.306955598 516.363437735 54.0 -331.034106178 457.669901942 6.0
-261.144537018 523.912079455 60.0 -347.572338954 525.607677419 60.0
-385.336708541 -104.156829642 6.0 -388.030376865 -36.7450468447 54.0
-388.33758142 -93.7763305231 6.0 -415.038232777 56.6794452282 54.0
-388.030376865 -36.7450468447 54.0 -385.336708541 -104.156829642 6.0
-391.367958285 -17.9380748758 60.0 -415.374941317 65.1059180779 60.0
-415.038232777 56.6794452282 54.0 -388.33758142 -93.7763305231 6.0
-415.374941317 65.1059180779 60.0 -391.367958285 -17.9380748758 60.0
-225.618524784 -524.980955321 6.0 -270.566723052 -567.906659728 54.0
-230.836708541 -515.51889644 6.0 -317.530376865 -482.748129794 54.0
-270.566723052 -567.906659728 54.0 -225.618524784 -524.980955321 6.0
-281.403431592 -563.810313897 60.0 -323.148901649 -488.113842844 60.0
-317.530376865 -482.748129794 54.0 -230.836708541 -515.51889644 6.0
-323.148901649 -488.113842844 60.0 -281.403431592 -563.810313897 60.0
282.870814718 -281.632963786 6.0 225.837332463 -317.671640383 54.0
275.381475216 -289.422045492 6.0 158.433276948 -387.77337574 54.0
225.837332463 -317.671640383 54.0 282.870814718 -281.632963786 6.0
211.21880768 -329.965556664 60.0 151.304091666 -392.278210315 60.0
158.433276948 -387.77337574 54.0 275.381475216 -289.422045492 6.0
151.304091666 -392.278210315 60.0 211.21880768 -329.965556664 60.0
475.281152545 264.185070239 306.0 534.30488211 272.242414589 354.0
473.505588146 254.081240714 306.0 518.324802517 181.307948867 354.0
534.30488211 272.242414589 354.0 475.281152545 264.185070239 306.0
539.907283906 263.145753108 360.0 525.702768712 182.315116911 360.0
518.324802517 181.307948867 354.0 473.505588146 254.081240714 306.0
525.702768712 182.315116911 360.0 539.907283906 263.145753108 360.0
-51.6624493861 367.973750063 306.0 12.9584459172 360.130981255 354.0
-41.5586198614 369.749314462 306.0 103.89291164 376.111060848 354.0
12.9584459172 360.130981255 354.0 -51.6624493861 367.973750063 306.0
31.1398873549 360.926199554 360.0 111.970523552 375.130714747 360.0
103.89291164 376.111060848 354.0 -41.5586198614 369.749314462 306.0
111.970523552 375.130714747 360.0 31.1398873549 360.926199554 360.0
-466.4315584 279.513016925 306.0 -502.921288077 326.600393979 354.0
-456.793603156 283.027247812 306.0 -416.179690885 358.228471958 354.0
-502.921288077 326.600393979 354.0 -466.4315584 279.513016925 306.0
-497.844549043 336.000546997 360.0 -420.740907095 364.114394089 360.0
-416.179690885 358.228471958 354.0 -456.793603156 283.027247812 306.0
-420.740907095 364.114394089 360.0 -497.844549043 336.000546997 360.0
-292.843390787 -228.727868621 306.0 -318.361801415 -168.84314727 354.0
-299.432989425 -220.865477777 306.0 -377.668189159 -98.0816296712 354.0
-318.361801415 -168.84314727 354.0 -292.843390787 -228.727868621 306.0
-328.141201382 -153.495166256 360.0 -380.857990487 -90.5960395022 360.0
-377.668189159 -98.0816296712 354.0 -299.432989425 -220.865477777 306.0
-380.857990487 -90.5960395022 360.0 -328.141201382 -153.495166256 360.0
-8.84959414554 -543.698087164 306.0 -31.3835940331 -598.842808568 354.0
-16.7119849898 -537.108488525 306.0 -102.145111632 -539.536420825 354.0
-31.3835940331 -598.842808568 354.0 -8.84959414554 -543.698087164 306.0
-42.0627348633 -599.146300105 360.0 -104.961861618 -546.429511 360.0
-102.145111632 -539.536420825 354.0 -16.7119849898 -537.108488525 306.0
-104.961861618 -546.429511 360.0 -42.0627348633 -599.146300105 360.0
344.505840173 -139.245881441 306.0 305.403355498 -191.287833986 354.0
340.991609287 -148.883836685 306.0 273.775277519 -278.029431177 354.0
305.403355498 -191.287833986 354.0 344.505840173 -139.245881441 306.0
297.001314027 -207.431033297 360.0 268.887466935 -284.534675245 360.0
273.775277519 -278.029431177 354.0 340.991609287 -148.883836685 306.0
268.887466935 -284.534675245 360.0 297.001314027 -207.431033297 360.0