-1.3 -0.2 -0.1
-1.3 -0.2 0.1
-1.3 1.7763568394e-15 -0.2
-1.3 1.7763568394e-15 0.2
-1.3 0.2 -0.1
-1.3 0.2 0.1
-1.2 -0.6 1.7763568394e-15
-1.2 -0.4 -0.2
-1.2 -0.4 0.2
-1.2 -0.1 -0.3
-1.2 -0.1 0.3
-1.2 1.7763568394e-15 -0.3
-1.2 1.7763568394e-15 0.3
-1.2 0.1 -0.3
-1.2 0.1 0.3
-1.2 0.4 -0.2
-1.2 0.4 0.2
-1.2 0.6 1.7763568394e-15
-1.1 -0.4 -0.3
-1.1 -0.4 0.3
-1.1 -0.3 -0.3
-1.1 -0.3 0.3
-1.1 0.3 -0.3
-1.1 0.3 0.3
-1.1 0.4 -0.3
-1.1 0.4 0.3
-1.0 -0.8 -0.2
-1.0 -0.8 0.2
-1.0 0.8 -0.2
-1.0 0.8 0.2
-0.9 -0.1 -0.4
-0.9 -0.1 0.4
-0.9 1.7763568394e-15 -0.4
-0.9 1.7763568394e-15 0.4
-0.9 0.1 -0.4
-0.9 0.1 0.4
-0.8 -1.0 -0.2
-0.8 -1.0 0.2
-0.8 -0.5 -0.4
-0.8 -0.5 0.4
-0.8 -0.4 -0.4
-0.8 -0.4 0.4
-0.8 0.4 -0.4
-0.8 0.4 0.4
-0.8 0.5 -0.4
-0.8 0.5 0.4
-0.8 1.0 -0.2
-0.8 1.0 0.2
-0.6 -1.2 1.7763568394e-15
-0.6 -0.3 -0.3
-0.6 -0.3 0.3
-0.6 -0.2 -0.3
-0.6 -0.2 0.3
-0.6 0.2 -0.3
-0.6 0.2 0.3
-0.6 0.3 -0.3
-0.6 0.3 0.3
-0.6 1.2 1.7763568394e-15
-0.5 -0.8 -0.4
-0.5 -0.8 0.4
-0.5 -0.4 -0.3
-0.5 -0.4 0.3
-0.5 -0.2 -0.2
-0.5 -0.2 0.2
-0.5 -0.1 -0.1
-0.5 -0.1 0.1
-0.5 1.7763568394e-15 -0.1
-0.5 1.7763568394e-15 0.1
-0.5 0.1 -0.1
-0.5 0.1 0.1
-0.5 0.2 -0.2
-0.5 0.2 0.2
-0.5 0.4 -0.3
-0.5 0.4 0.3
-0.5 0.8 -0.4
-0.5 0.8 0.4
-0.4 -1.2 -0.2
-0.4 -1.2 0.2
-0.4 -1.1 -0.3
-0.4 -1.1 0.3
-0.4 -0.8 -0.4
-0.4 -0.8 0.4
-0.4 -0.5 -0.3
-0.4 -0.5 0.3
-0.4 -0.4 -0.2
-0.4 -0.4 0.2
-0.4 -0.3 -0.1
-0.4 -0.3 0.1
-0.4 -0.2 1.7763568394e-15
-0.4 0.2 1.7763568394e-15
-0.4 0.3 -0.1
-0.4 0.3 0.1
-0.4 0.4 -0.2
-0.4 0.4 0.2
-0.4 0.5 -0.3
-0.4 0.5 0.3
-0.4 0.8 -0.4
-0.4 0.8 0.4
-0.4 1.1 -0.3
-0.4 1.1 0.3
-0.4 1.2 -0.2
-0.4 1.2 0.2
-0.3 -1.1 -0.3
-0.3 -1.1 0.3
-0.3 -0.6 -0.3
-0.3 -0.6 0.3
-0.3 -0.4 -0.1
-0.3 -0.4 0.1
-0.3 0.4 -0.1
-0.3 0.4 0.1
-0.3 0.6 -0.3
-0.3 0.6 0.3
-0.3 1.1 -0.3
-0.3 1.1 0.3
-0.2 -1.3 -0.1
-0.2 -1.3 0.1
-0.2 -0.6 -0.3
-0.2 -0.6 0.3
-0.2 -0.5 -0.2
-0.2 -0.5 0.2
-0.2 -0.4 1.7763568394e-15
-0.2 0.4 1.7763568394e-15
-0.2 0.5 -0.2
-0.2 0.5 0.2
-0.2 0.6 -0.3
-0.2 0.6 0.3
-0.2 1.3 -0.1
-0.2 1.3 0.1
-0.1 -1.2 -0.3
-0.1 -1.2 0.3
-0.1 -0.9 -0.4
-0.1 -0.9 0.4
-0.1 -0.5 -0.1
-0.1 -0.5 0.1
-0.1 0.5 -0.1
-0.1 0.5 0.1
-0.1 0.9 -0.4
-0.1 0.9 0.4
-0.1 1.2 -0.3
-0.1 1.2 0.3
1.7763568394e-15 -1.3 -0.2
1.7763568394e-15 -1.3 0.2
1.7763568394e-15 -1.2 -0.3
1.7763568394e-15 -1.2 0.3
1.7763568394e-15 -0.9 -0.4
1.7763568394e-15 -0.9 0.4
1.7763568394e-15 -0.5 -0.1
1.7763568394e-15 -0.5 0.1
1.7763568394e-15 0.5 -0.1
1.7763568394e-15 0.5 0.1
1.7763568394e-15 0.9 -0.4
1.7763568394e-15 0.9 0.4
1.7763568394e-15 1.2 -0.3
1.7763568394e-15 1.2 0.3
1.7763568394e-15 1.3 -0.2
1.7763568394e-15 1.3 0.2
0.1 -1.2 -0.3
0.1 -1.2 0.3
0.1 -0.9 -0.4
0.1 -0.9 0.4
0.1 -0.5 -0.1
0.1 -0.5 0.1
0.1 0.5 -0.1
0.1 0.5 0.1
0.1 0.9 -0.4
0.1 0.9 0.4
0.1 1.2 -0.3
0.1 1.2 0.3
0.2 -1.3 -0.1
0.2 -1.3 0.1
0.2 -0.6 -0.3
0.2 -0.6 0.3
0.2 -0.5 -0.2
0.2 -0.5 0.2
0.2 -0.4 1.7763568394e-15
0.2 0.4 1.7763568394e-15
0.2 0.5 -0.2
0.2 0.5 0.2
0.2 0.6 -0.3
0.2 0.6 0.3
0.2 1.3 -0.1
0.2 1.3 0.1
0.3 -1.1 -0.3
0.3 -1.1 0.3
0.3 -0.6 -0.3
0.3 -0.6 0.3
0.3 -0.4 -0.1
0.3 -0.4 0.1
0.3 0.4 -0.1
0.3 0.4 0.1
0.3 0.6 -0.3
0.3 0.6 0.3
0.3 1.1 -0.3
0.3 1.1 0.3
0.4 -1.2 -0.2
0.4 -1.2 0.2
0.4 -1.1 -0.3
0.4 -1.1 0.3
0.4 -0.8 -0.4
0.4 -0.8 0.4
0.4 -0.5 -0.3
0.4 -0.5 0.3
0.4 -0.4 -0.2
0.4 -0.4 0.2
0.4 -0.3 -0.1
0.4 -0.3 0.1
0.4 -0.2 1.7763568394e-15
0.4 0.2 1.7763568394e-15
0.4 0.3 -0.1
0.4 0.3 0.1
0.4 0.4 -0.2
0.4 0.4 0.2
0.4 0.5 -0.3
0.4 0.5 0.3
0.4 0.8 -0.4
0.4 0.8 0.4
0.4 1.1 -0.3
0.4 1.1 0.3
0.4 1.2 -0.2
0.4 1.2 0.2
0.5 -0.8 -0.4
0.5 -0.8 0.4
0.5 -0.4 -0.3
0.5 -0.4 0.3
0.5 -0.2 -0.2
0.5 -0.2 0.2
0.5 -0.1 -0.1
0.5 -0.1 0.1
0.5 1.7763568394e-15 -0.1
0.5 1.7763568394e-15 0.1
0.5 0.1 -0.1
0.5 0.1 0.1
0.5 0.2 -0.2
0.5 0.2 0.2
0.5 0.4 -0.3
0.5 0.4 0.3
0.5 0.8 -0.4
0.5 0.8 0.4
0.6 -1.2 1.7763568394e-15
0.6 -0.3 -0.3
0.6 -0.3 0.3
0.6 -0.2 -0.3
0.6 -0.2 0.3
0.6 0.2 -0.3
0.6 0.2 0.3
0.6 0.3 -0.3
0.6 0.3 0.3
0.6 1.2 1.7763568394e-15
0.8 -1.0 -0.2
0.8 -1.0 0.2
0.8 -0.5 -0.4
0.8 -0.5 0.4
0.8 -0.4 -0.4
0.8 -0.4 0.4
0.8 0.4 -0.4
0.8 0.4 0.4
0.8 0.5 -0.4
0.8 0.5 0.4
0.8 1.0 -0.2
0.8 1.0 0.2
0.9 -0.1 -0.4
0.9 -0.1 0.4
0.9 1.7763568394e-15 -0.4
0.9 1.7763568394e-15 0.4
0.9 0.1 -0.4
0.9 0.1 0.4
1.0 -0.8 -0.2
1.0 -0.8 0.2
1.0 0.8 -0.2
1.0 0.8 0.2
1.1 -0.4 -0.3
1.1 -0.4 0.3
1.1 -0.3 -0.3
1.1 -0.3 0.3
1.1 0.3 -0.3
1.1 0.3 0.3
1.1 0.4 -0.3
1.1 0.4 0.3
1.2 -0.6 1.7763568394e-15
1.2 -0.4 -0.2
1.2 -0.4 0.2
1.2 -0.1 -0.3
1.2 -0.1 0.3
1.2 1.7763568394e-15 -0.3
1.2 1.7763568394e-15 0.3
1.2 0.1 -0.3
1.2 0.1 0.3
1.2 0.4 -0.2
1.2 0.4 0.2
1.2 0.6 1.7763568394e-15
1.3 -0.2 -0.1
1.3 -0.2 0.1
1.3 1.7763568394e-15 -0.2
1.3 1.7763568394e-15 0.2
1.3 0.2 -0.1
1.3 0.2 0.1